0.992595 -0.390077 1.496230 0.000000 0.000000 0.000000 
0.877480 -0.060034 1.361340 0.000000 0.000000 0.000000 
0.866014 -0.071721 1.545610 0.000000 0.000000 0.000000 
0.913354 -0.041205 1.338860 0.000000 0.000000 0.000000 
0.928399 -0.170112 1.440760 0.000000 0.000000 0.000000 
0.808438 -0.102461 1.649580 0.000000 0.000000 0.000000 
0.975693 -0.244828 1.314400 0.000000 0.000000 0.000000 
0.261300 -0.314480 2.010710 0.000000 0.000000 0.000000 
0.277981 -0.355655 2.019530 0.000000 0.000000 0.000000 
0.573435 -0.533840 2.037810 0.000000 0.000000 0.000000 
0.191467 -0.369103 1.965160 0.000000 0.000000 0.000000 
0.867965 -0.175309 1.943350 0.000000 0.000000 0.000000 
0.586836 -0.212469 2.087200 0.000000 0.000000 0.000000 
0.533969 -0.221557 2.140070 0.000000 0.000000 0.000000 
0.481394 -0.194546 2.001060 0.000000 0.000000 0.000000 
0.679449 -0.157318 1.883870 0.000000 0.000000 0.000000 
0.982653 -0.277705 1.317680 0.000000 0.000000 0.000000 
0.772593 -0.053390 1.465590 0.000000 0.000000 0.000000 
0.984300 -0.399805 1.564490 0.000000 0.000000 0.000000 
0.978570 -0.237284 1.327130 0.000000 0.000000 0.000000 
0.887575 -0.134309 1.436410 0.000000 0.000000 0.000000 
0.980577 -0.160174 1.361130 0.000000 0.000000 0.000000 
0.878451 -0.178498 1.406420 0.000000 0.000000 0.000000 
0.979464 -0.220048 1.331000 0.000000 0.000000 0.000000 
0.733966 -0.445513 1.447370 0.000000 0.000000 0.000000 
0.934224 -0.144857 1.431330 0.000000 0.000000 0.000000 
0.979042 -0.191088 1.378930 0.000000 0.000000 0.000000 
0.978204 -0.463038 1.456880 0.000000 0.000000 0.000000 
0.972898 -0.295902 1.400110 0.000000 0.000000 0.000000 
0.978746 -0.329236 1.393230 0.000000 0.000000 0.000000 
0.970572 -0.280536 1.492490 0.000000 0.000000 0.000000 
0.974163 -0.317209 1.430530 0.000000 0.000000 0.000000 
0.930846 -0.134416 1.435980 0.000000 0.000000 0.000000 
0.977131 -0.453605 1.982490 0.000000 0.000000 0.000000 
0.989372 -0.451257 1.638870 0.000000 0.000000 0.000000 
0.974526 -0.280548 1.321020 0.000000 0.000000 0.000000 
0.888629 -0.051965 1.437370 0.000000 0.000000 0.000000 
0.919982 -0.094777 1.454880 0.000000 0.000000 0.000000 
0.976346 -0.279262 1.486140 0.000000 0.000000 0.000000 
0.976792 -0.301784 1.465180 0.000000 0.000000 0.000000 
0.969964 -0.092095 1.469560 0.000000 0.000000 0.000000 
0.913049 -0.058675 1.457530 0.000000 0.000000 0.000000 
0.267407 -0.310995 2.010510 0.000000 0.000000 0.000000 
0.278597 -0.346952 2.017140 0.000000 0.000000 0.000000 
0.203222 -0.378304 1.969070 0.000000 0.000000 0.000000 
0.621238 -0.378321 2.081090 0.000000 0.000000 0.000000 
0.987552 -0.527698 2.052910 0.000000 0.000000 0.000000 
0.862833 -0.525353 2.046820 0.000000 0.000000 0.000000 
0.588499 -0.174267 1.930900 0.000000 0.000000 0.000000 
0.579462 -0.578261 2.018340 0.000000 0.000000 0.000000 
0.168714 -0.398240 1.263490 0.000000 0.000000 0.000000 
0.218210 -0.397519 1.323270 0.000000 0.000000 0.000000 
0.865855 -0.059129 1.341730 0.000000 0.000000 0.000000 
0.985768 -0.343174 1.888670 0.000000 0.000000 0.000000 
-0.118473 -0.097700 1.621470 0.000000 0.000000 0.000000 
-0.055989 -0.261151 1.287000 0.000000 0.000000 0.000000 
-0.137290 -0.104755 1.624250 0.000000 0.000000 0.000000 
-0.138168 -0.101479 1.630270 0.000000 0.000000 0.000000 
0.246738 -0.296404 2.021930 0.000000 0.000000 0.000000 
-0.045012 -0.588638 1.936240 0.000000 0.000000 0.000000 
-0.047598 -0.590015 1.939020 0.000000 0.000000 0.000000 
0.182962 -0.591974 1.909250 0.000000 0.000000 0.000000 
0.073965 -0.596168 1.947200 0.000000 0.000000 0.000000 
-0.026533 -0.609011 1.878460 0.000000 0.000000 0.000000 
0.009994 -0.149183 1.831220 0.000000 0.000000 0.000000 
-0.005612 -0.613164 1.884780 0.000000 0.000000 0.000000 
0.119870 -0.582119 1.956940 0.000000 0.000000 0.000000 
-0.044973 -0.587619 1.934900 0.000000 0.000000 0.000000 
0.114790 -0.099786 1.633690 0.000000 0.000000 0.000000 
0.105905 -0.428321 1.259260 0.000000 0.000000 0.000000 
0.152690 -0.035820 1.335780 0.000000 0.000000 0.000000 
0.165031 -0.106589 1.345560 0.000000 0.000000 0.000000 
0.190586 -0.126377 1.411940 0.000000 0.000000 0.000000 
0.746500 -0.516478 1.621430 0.000000 0.000000 0.000000 
0.073360 -0.103340 1.651640 0.000000 0.000000 0.000000 
0.114094 -0.588172 1.919140 0.000000 0.000000 0.000000 
-0.030334 -0.200181 2.030580 0.000000 0.000000 0.000000 
0.193822 -0.596281 1.914570 0.000000 0.000000 0.000000 
-0.074979 -0.567852 1.902760 0.000000 0.000000 0.000000 
0.744681 -0.250313 2.153860 0.000000 0.000000 0.000000 
0.983473 -0.364467 1.785650 0.000000 0.000000 0.000000 
0.120920 -0.222950 2.002090 0.000000 0.000000 0.000000 
0.563222 -0.514767 2.020770 0.000000 0.000000 0.000000 
0.296121 -0.312893 2.010550 0.000000 0.000000 0.000000 
0.255809 -0.297610 2.039860 0.000000 0.000000 0.000000 
0.256893 -0.161196 1.447170 0.000000 0.000000 0.000000 
0.234957 -0.118863 1.672430 0.000000 0.000000 0.000000 
0.619176 -0.390600 2.073800 0.000000 0.000000 0.000000 
0.124976 -0.247215 2.079970 0.000000 0.000000 0.000000 
0.256282 -0.220808 2.034520 0.000000 0.000000 0.000000 
0.280301 -0.298763 2.011290 0.000000 0.000000 0.000000 
0.258847 -0.367891 2.008850 0.000000 0.000000 0.000000 
0.032424 -0.603124 1.855320 0.000000 0.000000 0.000000 
0.018923 -0.101437 1.617800 0.000000 0.000000 0.000000 
-0.000502 -0.179979 1.941360 0.000000 0.000000 0.000000 
0.151997 -0.042400 1.364790 0.000000 0.000000 0.000000 
0.066249 -0.026016 1.304010 0.000000 0.000000 0.000000 
0.041787 -0.211441 1.739180 0.000000 0.000000 0.000000 
0.280338 -0.300104 2.012190 0.000000 0.000000 0.000000 
0.211289 -0.452175 1.944870 0.000000 0.000000 0.000000 
-0.022285 -0.103687 1.630060 0.000000 0.000000 0.000000 
0.245137 -0.260018 2.019680 0.000000 0.000000 0.000000 
0.257111 -0.578443 1.929110 0.000000 0.000000 0.000000 
0.259605 -0.480872 1.998290 0.000000 0.000000 0.000000 
0.213151 -0.455703 1.947920 0.000000 0.000000 0.000000 
0.267672 -0.318763 2.009490 0.000000 0.000000 0.000000 
0.264948 -0.378872 2.044550 0.000000 0.000000 0.000000 
0.134197 -0.415770 1.956210 0.000000 0.000000 0.000000 
0.164139 -0.064070 1.475180 0.000000 0.000000 0.000000 
0.158178 -0.083816 1.368050 0.000000 0.000000 0.000000 
0.167974 -0.250166 1.430320 0.000000 0.000000 0.000000 
0.015055 -0.010064 1.242010 0.000000 0.000000 0.000000 
0.111153 -0.099985 1.621170 0.000000 0.000000 0.000000 
0.237177 -0.340540 1.987230 0.000000 0.000000 0.000000 
0.126488 -0.222901 1.994120 0.000000 0.000000 0.000000 
0.296489 -0.334460 2.021290 0.000000 0.000000 0.000000 
0.073043 -0.117244 1.701980 0.000000 0.000000 0.000000 
0.260512 -0.214154 2.028020 0.000000 0.000000 0.000000 
0.244477 -0.341451 1.996780 0.000000 0.000000 0.000000 
0.256112 -0.582808 1.938220 0.000000 0.000000 0.000000 
-0.112241 -0.017576 1.264720 0.000000 0.000000 0.000000 
0.241298 -0.226330 2.036370 0.000000 0.000000 0.000000 
0.244536 -0.227936 2.049870 0.000000 0.000000 0.000000 
0.246449 -0.246567 2.027580 0.000000 0.000000 0.000000 
0.232091 -0.262453 2.006570 0.000000 0.000000 0.000000 
0.010845 -0.149725 1.825550 0.000000 0.000000 0.000000 
0.245273 -0.260605 2.021010 0.000000 0.000000 0.000000 
0.119115 -0.237187 2.079140 0.000000 0.000000 0.000000 
0.250352 -0.352292 2.015950 0.000000 0.000000 0.000000 
0.256007 -0.578213 1.929990 0.000000 0.000000 0.000000 
0.023420 -0.085987 1.545260 0.000000 0.000000 0.000000 
0.120107 -0.586570 1.896660 0.000000 0.000000 0.000000 
0.053791 -0.067221 1.486590 0.000000 0.000000 0.000000 
-0.136323 -0.100188 1.616600 0.000000 0.000000 0.000000 
-0.065505 -0.014565 1.251990 0.000000 0.000000 0.000000 
0.064376 -0.013485 1.256980 0.000000 0.000000 0.000000 
-0.093381 -0.193402 1.991490 0.000000 0.000000 0.000000 
-0.030541 -0.122124 1.714630 0.000000 0.000000 0.000000 
-0.065127 -0.014135 1.253200 0.000000 0.000000 0.000000 
0.127011 -0.219085 2.011860 0.000000 0.000000 0.000000 
0.165108 -0.120939 1.373970 0.000000 0.000000 0.000000 
-0.119853 -0.058550 1.435520 0.000000 0.000000 0.000000 
0.248538 -0.298250 2.004770 0.000000 0.000000 0.000000 
0.248424 -0.560409 1.934850 0.000000 0.000000 0.000000 
0.063359 -0.014389 1.256360 0.000000 0.000000 0.000000 
-0.005962 -0.612444 1.882660 0.000000 0.000000 0.000000 
0.279822 -0.298409 2.011260 0.000000 0.000000 0.000000 
0.203247 -0.377731 1.968830 0.000000 0.000000 0.000000 
0.190222 -0.207748 2.010940 0.000000 0.000000 0.000000 
0.159542 -0.198504 2.008170 0.000000 0.000000 0.000000 
0.243199 -0.585983 1.916260 0.000000 0.000000 0.000000 
0.224836 -0.573259 1.914540 0.000000 0.000000 0.000000 
0.244525 -0.292922 2.023880 0.000000 0.000000 0.000000 
0.249841 -0.251587 2.038930 0.000000 0.000000 0.000000 
0.255004 -0.222566 2.032100 0.000000 0.000000 0.000000 
0.184968 -0.132012 1.378900 0.000000 0.000000 0.000000 
0.987169 -0.448193 1.752520 0.000000 0.000000 0.000000 
0.174564 -0.111745 1.336160 0.000000 0.000000 0.000000 
0.014610 -0.606349 1.952710 0.000000 0.000000 0.000000 
0.258061 -0.578148 1.930750 0.000000 0.000000 0.000000 
0.156069 -0.082714 1.252920 0.000000 0.000000 0.000000 
0.223939 -0.574384 1.919030 0.000000 0.000000 0.000000 
0.216810 -0.286023 1.995290 0.000000 0.000000 0.000000 
0.259214 -0.416544 2.028430 0.000000 0.000000 0.000000 
0.163705 -0.061769 1.479910 0.000000 0.000000 0.000000 
0.073261 -0.103399 1.652970 0.000000 0.000000 0.000000 
0.928140 -0.334464 1.844710 0.000000 0.000000 0.000000 
0.739068 -0.320186 1.729090 0.000000 0.000000 0.000000 
0.248061 -0.169103 1.443770 0.000000 0.000000 0.000000 
0.161502 -0.127394 1.498410 0.000000 0.000000 0.000000 
0.244380 -0.104217 1.626680 0.000000 0.000000 0.000000 
0.165952 -0.081060 1.544170 0.000000 0.000000 0.000000 
0.744283 -0.539531 2.035540 0.000000 0.000000 0.000000 
0.162493 -0.083593 1.362930 0.000000 0.000000 0.000000 
0.157058 -0.104729 1.347960 0.000000 0.000000 0.000000 
0.160975 -0.124660 1.499080 0.000000 0.000000 0.000000 
0.226633 -0.079838 1.446390 0.000000 0.000000 0.000000 
0.252242 -0.160460 1.443680 0.000000 0.000000 0.000000 
0.257190 -0.191410 1.444180 0.000000 0.000000 0.000000 
-0.023632 -0.590426 1.935770 0.000000 0.000000 0.000000 
0.743645 -0.250372 2.151210 0.000000 0.000000 0.000000 
0.158864 -0.129437 1.506150 0.000000 0.000000 0.000000 
0.274030 -0.124800 1.754620 0.000000 0.000000 0.000000 
0.365506 -0.252236 2.104630 0.000000 0.000000 0.000000 
0.330234 -0.263373 2.057330 0.000000 0.000000 0.000000 
0.288843 -0.220846 2.040570 0.000000 0.000000 0.000000 
0.577497 -0.325144 2.097550 0.000000 0.000000 0.000000 
0.227135 -0.143578 1.384240 0.000000 0.000000 0.000000 
0.571451 -0.224401 2.124000 0.000000 0.000000 0.000000 
0.164438 -0.092446 1.549010 0.000000 0.000000 0.000000 
0.300945 -0.435407 1.413610 0.000000 0.000000 0.000000 
0.169859 -0.074451 1.474590 0.000000 0.000000 0.000000 
0.140300 -0.116315 1.336260 0.000000 0.000000 0.000000 
0.261831 -0.201842 1.444670 0.000000 0.000000 0.000000 
0.322710 -0.433914 1.424690 0.000000 0.000000 0.000000 
0.635078 -0.307567 1.592430 0.000000 0.000000 0.000000 
0.173102 -0.117535 1.331020 0.000000 0.000000 0.000000 
0.261500 -0.212708 2.030880 0.000000 0.000000 0.000000 
0.215619 -0.136463 1.396990 0.000000 0.000000 0.000000 
0.385081 -0.247827 2.125410 0.000000 0.000000 0.000000 
0.346341 -0.262634 2.087380 0.000000 0.000000 0.000000 
0.243168 -0.294924 2.015570 0.000000 0.000000 0.000000 
0.572914 -0.226183 2.127880 0.000000 0.000000 0.000000 
0.167898 -0.115832 1.374960 0.000000 0.000000 0.000000 
0.209120 -0.136527 1.392830 0.000000 0.000000 0.000000 
0.052367 -0.559180 1.878180 0.000000 0.000000 0.000000 
-0.043828 -0.194081 1.996510 0.000000 0.000000 0.000000 
-0.060833 -0.606428 1.890400 0.000000 0.000000 0.000000 
0.254952 -0.415280 2.010120 0.000000 0.000000 0.000000 
0.261107 -0.464894 2.023750 0.000000 0.000000 0.000000 
0.308520 -0.229407 2.058570 0.000000 0.000000 0.000000 
0.250147 -0.562799 1.937410 0.000000 0.000000 0.000000 
0.254127 -0.318994 2.013060 0.000000 0.000000 0.000000 
0.277160 -0.347063 2.014990 0.000000 0.000000 0.000000 
0.160867 -0.087674 1.539640 0.000000 0.000000 0.000000 
0.984100 -0.368253 1.785310 0.000000 0.000000 0.000000 
0.988172 -0.447981 1.754250 0.000000 0.000000 0.000000 
0.989625 -0.447921 1.759360 0.000000 0.000000 0.000000 
0.198800 -0.170231 1.408710 0.000000 0.000000 0.000000 
0.175264 -0.193787 1.389410 0.000000 0.000000 0.000000 
0.651483 -0.404557 2.105070 0.000000 0.000000 0.000000 
0.081867 -0.628557 2.014990 0.000000 0.000000 0.000000 
0.023221 -0.583900 1.912570 0.000000 0.000000 0.000000 
0.293003 -0.298847 2.020560 0.000000 0.000000 0.000000 
0.355468 -0.220812 1.772000 0.000000 0.000000 0.000000 
0.577331 -0.247285 2.110170 0.000000 0.000000 0.000000 
0.350387 -0.263857 2.090470 0.000000 0.000000 0.000000 
0.556048 -0.250440 2.077640 0.000000 0.000000 0.000000 
0.296133 -0.222674 2.052290 0.000000 0.000000 0.000000 
0.172537 -0.119333 1.330470 0.000000 0.000000 0.000000 
0.137410 -0.126643 1.372170 0.000000 0.000000 0.000000 
0.231311 -0.143893 1.387340 0.000000 0.000000 0.000000 
0.229535 -0.143763 1.386390 0.000000 0.000000 0.000000 
0.201110 -0.088382 1.413380 0.000000 0.000000 0.000000 
0.177880 -0.124352 1.393860 0.000000 0.000000 0.000000 
0.215752 -0.135268 1.393610 0.000000 0.000000 0.000000 
0.621723 -0.370991 1.516060 0.000000 0.000000 0.000000 
0.381715 -0.129154 1.525700 0.000000 0.000000 0.000000 
0.037940 -0.621605 2.004130 0.000000 0.000000 0.000000 
0.252105 -0.174804 1.443070 0.000000 0.000000 0.000000 
0.256738 -0.124461 1.730330 0.000000 0.000000 0.000000 
0.164665 -0.116418 1.373310 0.000000 0.000000 0.000000 
0.248552 -0.242774 2.029000 0.000000 0.000000 0.000000 
0.288887 -0.318193 2.014910 0.000000 0.000000 0.000000 
0.166796 -0.129218 1.517830 0.000000 0.000000 0.000000 
0.244444 -0.331243 2.002840 0.000000 0.000000 0.000000 
-0.035622 -0.190118 2.024820 0.000000 0.000000 0.000000 
-0.054771 -0.185583 1.988950 0.000000 0.000000 0.000000 
0.257846 -0.531702 1.979560 0.000000 0.000000 0.000000 
0.564785 -0.440389 1.407240 0.000000 0.000000 0.000000 
0.745133 -0.438902 1.256980 0.000000 0.000000 0.000000 
0.535845 -0.442429 1.389230 0.000000 0.000000 0.000000 
0.724058 -0.032225 1.380540 0.000000 0.000000 0.000000 
0.507663 -0.430722 1.398500 0.000000 0.000000 0.000000 
0.878057 -0.134576 1.426850 0.000000 0.000000 0.000000 
0.505096 -0.431078 1.387590 0.000000 0.000000 0.000000 
0.505776 -0.432931 1.383250 0.000000 0.000000 0.000000 
0.884138 -0.157955 1.881990 0.000000 0.000000 0.000000 
0.256141 -0.161270 1.446460 0.000000 0.000000 0.000000 
0.181630 -0.151115 1.789250 0.000000 0.000000 0.000000 
0.245993 -0.259883 2.020810 0.000000 0.000000 0.000000 
0.018563 -0.176927 1.938520 0.000000 0.000000 0.000000 
0.223083 -0.143638 1.381780 0.000000 0.000000 0.000000 
0.588968 -0.624886 2.037030 0.000000 0.000000 0.000000 
0.584903 -0.525264 2.049420 0.000000 0.000000 0.000000 
0.573071 -0.595968 2.024970 0.000000 0.000000 0.000000 
0.161829 -0.098543 1.544040 0.000000 0.000000 0.000000 
0.228395 -0.143769 1.385790 0.000000 0.000000 0.000000 
0.567880 -0.532777 2.027430 0.000000 0.000000 0.000000 
0.607759 -0.586702 2.028080 0.000000 0.000000 0.000000 
0.259285 -0.189507 1.445490 0.000000 0.000000 0.000000 
0.637491 -0.623083 2.018650 0.000000 0.000000 0.000000 
0.664062 -0.446720 2.061240 0.000000 0.000000 0.000000 
0.582516 -0.576439 2.028610 0.000000 0.000000 0.000000 
0.167363 -0.154355 1.451640 0.000000 0.000000 0.000000 
-0.072046 -0.568967 1.896090 0.000000 0.000000 0.000000 
-0.031171 -0.573507 1.897640 0.000000 0.000000 0.000000 
-0.023253 -0.102657 1.644160 0.000000 0.000000 0.000000 
0.633542 -0.302327 1.662600 0.000000 0.000000 0.000000 
0.210483 -0.143120 1.376070 0.000000 0.000000 0.000000 
0.118075 -0.116611 1.317500 0.000000 0.000000 0.000000 
0.911445 -0.449798 1.806940 0.000000 0.000000 0.000000 
0.679908 -0.488005 1.969860 0.000000 0.000000 0.000000 
0.189583 -0.134151 1.379440 0.000000 0.000000 0.000000 
0.170279 -0.105341 1.335160 0.000000 0.000000 0.000000 
0.158965 -0.107951 1.329820 0.000000 0.000000 0.000000 
0.121997 -0.598868 1.929620 0.000000 0.000000 0.000000 
0.156409 -0.614669 1.942470 0.000000 0.000000 0.000000 
0.165563 -0.087934 1.559060 0.000000 0.000000 0.000000 
0.162094 -0.062218 1.476230 0.000000 0.000000 0.000000 
0.274668 -0.346749 2.009440 0.000000 0.000000 0.000000 
-0.005809 -0.613298 1.885050 0.000000 0.000000 0.000000 
-0.068414 -0.581089 1.945240 0.000000 0.000000 0.000000 
-0.067653 -0.577546 1.936080 0.000000 0.000000 0.000000 
-0.056205 -0.607030 1.894270 0.000000 0.000000 0.000000 
0.789109 -0.521830 1.620690 0.000000 0.000000 0.000000 
0.281149 -0.301628 2.012980 0.000000 0.000000 0.000000 
0.260012 -0.314493 2.010910 0.000000 0.000000 0.000000 
0.277232 -0.329202 2.005580 0.000000 0.000000 0.000000 
0.320698 -0.278248 2.030210 0.000000 0.000000 0.000000 
0.323157 -0.285346 2.037320 0.000000 0.000000 0.000000 
0.998015 -0.432207 1.745450 0.000000 0.000000 0.000000 
0.190014 -0.132770 1.337680 0.000000 0.000000 0.000000 
0.254825 -0.293041 2.010890 0.000000 0.000000 0.000000 
0.193681 -0.123804 1.406390 0.000000 0.000000 0.000000 
0.208292 -0.132448 1.347610 0.000000 0.000000 0.000000 
0.266800 -0.192741 1.450750 0.000000 0.000000 0.000000 
0.151163 -0.029404 1.339930 0.000000 0.000000 0.000000 
0.145210 -0.124293 1.369420 0.000000 0.000000 0.000000 
0.150561 -0.600206 1.919860 0.000000 0.000000 0.000000 
0.080155 -0.628413 2.011070 0.000000 0.000000 0.000000 
0.131874 -0.528222 1.933300 0.000000 0.000000 0.000000 
0.137029 -0.587247 1.944400 0.000000 0.000000 0.000000 
0.103724 -0.579872 1.921930 0.000000 0.000000 0.000000 
0.119826 -0.588974 1.912530 0.000000 0.000000 0.000000 
0.064955 -0.585575 1.923830 0.000000 0.000000 0.000000 
0.021620 -0.614184 1.883120 0.000000 0.000000 0.000000 
-0.027097 -0.586247 1.926380 0.000000 0.000000 0.000000 
0.176142 -0.126771 1.397660 0.000000 0.000000 0.000000 
0.177313 -0.125387 1.380700 0.000000 0.000000 0.000000 
0.072512 -0.571058 1.896320 0.000000 0.000000 0.000000 
0.164331 -0.086334 1.555340 0.000000 0.000000 0.000000 
-0.092246 -0.193521 1.989290 0.000000 0.000000 0.000000 
0.119944 -0.076857 1.551860 0.000000 0.000000 0.000000 
-0.032729 -0.604071 1.880630 0.000000 0.000000 0.000000 
0.209322 -0.136644 1.392700 0.000000 0.000000 0.000000 
0.257584 -0.074878 1.475990 0.000000 0.000000 0.000000 
0.186399 -0.126123 1.403610 0.000000 0.000000 0.000000 
0.246798 -0.115144 1.451950 0.000000 0.000000 0.000000 
0.306330 -0.229381 2.055100 0.000000 0.000000 0.000000 
0.111597 -0.099667 1.626500 0.000000 0.000000 0.000000 
0.168280 -0.123956 1.385290 0.000000 0.000000 0.000000 
0.082199 -0.148790 1.825760 0.000000 0.000000 0.000000 
0.160749 -0.084929 1.549620 0.000000 0.000000 0.000000 
0.162250 -0.116745 1.387130 0.000000 0.000000 0.000000 
0.240338 -0.269546 2.017950 0.000000 0.000000 0.000000 
0.268952 -0.319276 2.029560 0.000000 0.000000 0.000000 
0.224186 -0.586383 1.930400 0.000000 0.000000 0.000000 
0.257914 -0.304612 2.024140 0.000000 0.000000 0.000000 
0.234198 -0.260849 2.012040 0.000000 0.000000 0.000000 
0.287724 -0.318657 2.013420 0.000000 0.000000 0.000000 
0.168087 -0.106305 1.346130 0.000000 0.000000 0.000000 
0.180748 -0.117115 1.361600 0.000000 0.000000 0.000000 
0.570971 -0.225841 2.125740 0.000000 0.000000 0.000000 
0.214809 -0.448805 1.956810 0.000000 0.000000 0.000000 
0.215081 -0.383505 1.945030 0.000000 0.000000 0.000000 
0.258111 -0.531781 1.978920 0.000000 0.000000 0.000000 
0.258716 -0.459524 2.014190 0.000000 0.000000 0.000000 
0.258007 -0.458902 2.010870 0.000000 0.000000 0.000000 
0.258713 -0.295344 1.419280 0.000000 0.000000 0.000000 
0.186336 -0.074903 1.411860 0.000000 0.000000 0.000000 
0.237247 -0.079601 1.442740 0.000000 0.000000 0.000000 
0.183611 -0.073703 1.412410 0.000000 0.000000 0.000000 
0.163350 -0.126244 1.498560 0.000000 0.000000 0.000000 
0.166368 -0.117240 1.326880 0.000000 0.000000 0.000000 
0.194816 -0.179531 1.405370 0.000000 0.000000 0.000000 
0.141689 -0.125093 1.379720 0.000000 0.000000 0.000000 
0.184543 -0.056504 1.353880 0.000000 0.000000 0.000000 
0.155614 -0.082786 1.251810 0.000000 0.000000 0.000000 
0.136369 -0.593252 1.924430 0.000000 0.000000 0.000000 
0.161729 -0.124885 1.352570 0.000000 0.000000 0.000000 
0.036444 -0.619469 2.007050 0.000000 0.000000 0.000000 
0.075158 -0.103276 1.676840 0.000000 0.000000 0.000000 
0.175859 -0.112431 1.333900 0.000000 0.000000 0.000000 
0.724571 -0.410479 1.698630 0.000000 0.000000 0.000000 
0.255116 -0.416096 2.012170 0.000000 0.000000 0.000000 
-0.025384 -0.176202 1.791860 0.000000 0.000000 0.000000 
0.212029 -0.136174 1.395310 0.000000 0.000000 0.000000 
0.263945 -0.300299 1.955200 0.000000 0.000000 0.000000 
0.750833 -0.434547 2.108780 0.000000 0.000000 0.000000 
0.166923 -0.125126 1.397600 0.000000 0.000000 0.000000 
0.211433 -0.060058 1.364690 0.000000 0.000000 0.000000 
0.148374 -0.597412 1.919920 0.000000 0.000000 0.000000 
0.054355 -0.614930 1.984510 0.000000 0.000000 0.000000 
0.153560 -0.602821 1.922450 0.000000 0.000000 0.000000 
0.168540 -0.123526 1.385550 0.000000 0.000000 0.000000 
0.180749 -0.584195 1.892680 0.000000 0.000000 0.000000 
0.344673 -0.260778 2.086010 0.000000 0.000000 0.000000 
0.157029 -0.113186 1.321610 0.000000 0.000000 0.000000 
0.193947 -0.369881 1.970660 0.000000 0.000000 0.000000 
0.162275 -0.099157 1.357050 0.000000 0.000000 0.000000 
0.295276 -0.337458 2.017330 0.000000 0.000000 0.000000 
0.163827 -0.102788 1.355080 0.000000 0.000000 0.000000 
0.297242 -0.216525 2.045250 0.000000 0.000000 0.000000 
0.166028 -0.054493 1.462580 0.000000 0.000000 0.000000 
0.168159 -0.105890 1.345470 0.000000 0.000000 0.000000 
0.243515 -0.231899 2.035750 0.000000 0.000000 0.000000 
0.130572 -0.563452 1.926650 0.000000 0.000000 0.000000 
0.123173 -0.232123 2.029540 0.000000 0.000000 0.000000 
0.097645 -0.578685 1.928170 0.000000 0.000000 0.000000 
-0.024299 -0.195700 1.982530 0.000000 0.000000 0.000000 
0.156778 -0.113371 1.321360 0.000000 0.000000 0.000000 
0.324903 -0.276708 2.035880 0.000000 0.000000 0.000000 
0.280293 -0.299933 2.010680 0.000000 0.000000 0.000000 
0.254708 -0.576058 1.925570 0.000000 0.000000 0.000000 
0.161255 -0.084021 1.361670 0.000000 0.000000 0.000000 
0.243675 -0.588134 1.920520 0.000000 0.000000 0.000000 
0.224194 -0.574100 1.918180 0.000000 0.000000 0.000000 
0.265536 -0.190332 1.449660 0.000000 0.000000 0.000000 
0.737864 -0.525293 2.075590 0.000000 0.000000 0.000000 
0.742171 -0.524955 2.082610 0.000000 0.000000 0.000000 
0.639774 -0.468814 1.982870 0.000000 0.000000 0.000000 
0.556345 -0.455852 1.898170 0.000000 0.000000 0.000000 
0.603340 -0.591344 2.037660 0.000000 0.000000 0.000000 
0.159870 -0.055261 1.339930 0.000000 0.000000 0.000000 
0.188898 -0.049896 1.357370 0.000000 0.000000 0.000000 
0.164255 -0.127197 1.508560 0.000000 0.000000 0.000000 
0.260370 -0.363837 2.022330 0.000000 0.000000 0.000000 
0.232511 -0.127042 1.700520 0.000000 0.000000 0.000000 
0.212680 -0.136372 1.395530 0.000000 0.000000 0.000000 
0.250244 -0.351044 2.010500 0.000000 0.000000 0.000000 
0.203159 -0.170107 1.903260 0.000000 0.000000 0.000000 
0.242699 -0.532694 1.935890 0.000000 0.000000 0.000000 
0.112583 -0.099933 1.630810 0.000000 0.000000 0.000000 
0.246404 -0.551234 1.937490 0.000000 0.000000 0.000000 
0.277530 -0.347118 2.015470 0.000000 0.000000 0.000000 
0.149535 -0.063395 1.496480 0.000000 0.000000 0.000000 
0.168027 -0.073683 1.471900 0.000000 0.000000 0.000000 
0.117756 -0.158478 1.850880 0.000000 0.000000 0.000000 
0.257962 -0.289782 2.012740 0.000000 0.000000 0.000000 
0.164355 -0.112208 1.362080 0.000000 0.000000 0.000000 
0.164079 -0.116634 1.373070 0.000000 0.000000 0.000000 
0.163945 -0.120646 1.515750 0.000000 0.000000 0.000000 
0.237087 -0.236890 2.023340 0.000000 0.000000 0.000000 
0.159564 -0.099316 1.363740 0.000000 0.000000 0.000000 
0.233853 -0.219900 2.026060 0.000000 0.000000 0.000000 
0.248838 -0.335126 2.024590 0.000000 0.000000 0.000000 
0.278018 -0.356465 2.018440 0.000000 0.000000 0.000000 
0.258192 -0.337152 2.012380 0.000000 0.000000 0.000000 
0.273148 -0.337437 2.016830 0.000000 0.000000 0.000000 
0.295231 -0.294489 2.012550 0.000000 0.000000 0.000000 
0.253354 -0.304373 2.012420 0.000000 0.000000 0.000000 
0.161623 -0.082926 1.361380 0.000000 0.000000 0.000000 
0.164608 -0.112533 1.362580 0.000000 0.000000 0.000000 
-0.086262 -0.155153 1.862080 0.000000 0.000000 0.000000 
0.119123 -0.203590 2.029450 0.000000 0.000000 0.000000 
0.255432 -0.222567 2.033570 0.000000 0.000000 0.000000 
0.324449 -0.276569 2.031960 0.000000 0.000000 0.000000 
0.268254 -0.356928 2.023240 0.000000 0.000000 0.000000 
-0.033447 -0.603581 1.878730 0.000000 0.000000 0.000000 
0.012309 -0.584375 1.911460 0.000000 0.000000 0.000000 
0.269156 -0.423968 1.395230 0.000000 0.000000 0.000000 
0.159227 -0.085347 1.363190 0.000000 0.000000 0.000000 
0.088965 -0.139575 1.304930 0.000000 0.000000 0.000000 
0.962307 -0.102229 1.424890 0.000000 0.000000 0.000000 
0.994153 -0.387719 1.505930 0.000000 0.000000 0.000000 
0.972802 -0.306023 1.467600 0.000000 0.000000 0.000000 
0.976712 -0.286739 1.459720 0.000000 0.000000 0.000000 
0.975355 -0.345533 1.394120 0.000000 0.000000 0.000000 
0.980184 -0.195003 1.382710 0.000000 0.000000 0.000000 
0.986779 -0.378115 1.859590 0.000000 0.000000 0.000000 
0.982162 -0.462749 1.931830 0.000000 0.000000 0.000000 
0.982528 -0.392024 1.994450 0.000000 0.000000 0.000000 
0.992795 -0.145636 1.831970 0.000000 0.000000 0.000000 
0.249484 -0.297829 2.012880 0.000000 0.000000 0.000000 
0.164242 -0.095885 1.546930 0.000000 0.000000 0.000000 
0.174964 -0.118161 1.355270 0.000000 0.000000 0.000000 
0.578911 -0.483134 2.056450 0.000000 0.000000 0.000000 
0.174214 -0.117864 1.354710 0.000000 0.000000 0.000000 
0.597406 -0.585287 2.021010 0.000000 0.000000 0.000000 
0.578807 -0.580026 2.017410 0.000000 0.000000 0.000000 
0.179316 -0.060999 1.491150 0.000000 0.000000 0.000000 
0.298443 -0.296761 2.022560 0.000000 0.000000 0.000000 
0.267851 -0.319372 2.005210 0.000000 0.000000 0.000000 
0.270820 -0.335598 2.012580 0.000000 0.000000 0.000000 
0.287051 -0.216652 2.036000 0.000000 0.000000 0.000000 
0.329394 -0.278958 2.044170 0.000000 0.000000 0.000000 
0.274384 -0.215116 2.037480 0.000000 0.000000 0.000000 
0.171597 -0.187043 1.324850 0.000000 0.000000 0.000000 
0.279028 -0.462858 1.448470 0.000000 0.000000 0.000000 
0.259833 -0.313453 1.444870 0.000000 0.000000 0.000000 
0.330738 -0.179950 1.592970 0.000000 0.000000 0.000000 
0.258976 -0.334976 1.454980 0.000000 0.000000 0.000000 
0.507707 -0.033799 1.326650 0.000000 0.000000 0.000000 
0.270925 -0.189790 1.447200 0.000000 0.000000 0.000000 
0.937964 -0.171740 1.355160 0.000000 0.000000 0.000000 
0.979798 -0.338213 1.283830 0.000000 0.000000 0.000000 
0.978759 -0.336989 1.285830 0.000000 0.000000 0.000000 
0.914446 -0.147388 1.355430 0.000000 0.000000 0.000000 
0.269331 -0.224933 1.520970 0.000000 0.000000 0.000000 
0.171224 -0.195352 1.440230 0.000000 0.000000 0.000000 
0.865405 -0.465098 2.095550 0.000000 0.000000 0.000000 
0.983489 -0.416186 1.945970 0.000000 0.000000 0.000000 
1.007080 -0.157545 1.826820 0.000000 0.000000 0.000000 
0.975861 -0.432878 1.934440 0.000000 0.000000 0.000000 
0.887149 -0.180426 1.434580 0.000000 0.000000 0.000000 
0.743903 -0.098864 1.644640 0.000000 0.000000 0.000000 
0.878169 -0.031948 1.354920 0.000000 0.000000 0.000000 
0.871838 -0.047208 1.356380 0.000000 0.000000 0.000000 
0.979540 -0.092467 1.550280 0.000000 0.000000 0.000000 
0.987503 -0.443319 1.653850 0.000000 0.000000 0.000000 
0.881836 -0.154662 1.429520 0.000000 0.000000 0.000000 
0.878314 -0.175258 1.417440 0.000000 0.000000 0.000000 
0.245724 -0.245531 2.023430 0.000000 0.000000 0.000000 
0.235857 -0.339205 1.983120 0.000000 0.000000 0.000000 
0.596325 -0.591833 2.021450 0.000000 0.000000 0.000000 
0.616092 -0.413901 2.065490 0.000000 0.000000 0.000000 
0.243165 -0.295887 2.013080 0.000000 0.000000 0.000000 
0.227796 -0.220136 2.021060 0.000000 0.000000 0.000000 
-0.049719 -0.102147 1.638050 0.000000 0.000000 0.000000 
0.316108 -0.427167 1.412540 0.000000 0.000000 0.000000 
0.501246 -0.429868 1.380340 0.000000 0.000000 0.000000 
0.336043 -0.294640 1.275710 0.000000 0.000000 0.000000 
0.374236 -0.108802 1.453660 0.000000 0.000000 0.000000 
0.381140 -0.464087 1.416370 0.000000 0.000000 0.000000 
0.374934 -0.108259 1.457230 0.000000 0.000000 0.000000 
0.337346 -0.443130 1.326250 0.000000 0.000000 0.000000 
0.420186 -0.438321 1.308290 0.000000 0.000000 0.000000 
0.420370 -0.421029 1.337000 0.000000 0.000000 0.000000 
0.976219 -0.262761 1.436730 0.000000 0.000000 0.000000 
0.988446 -0.434476 1.635920 0.000000 0.000000 0.000000 
0.911296 -0.057874 1.460610 0.000000 0.000000 0.000000 
0.974920 -0.315504 1.430100 0.000000 0.000000 0.000000 
0.989730 -0.395323 1.503120 0.000000 0.000000 0.000000 
0.879027 -0.088618 1.417330 0.000000 0.000000 0.000000 
0.976364 -0.278890 1.319100 0.000000 0.000000 0.000000 
0.999822 -0.365149 1.787400 0.000000 0.000000 0.000000 
0.214179 -0.456679 1.948060 0.000000 0.000000 0.000000 
-0.072633 -0.193302 1.990960 0.000000 0.000000 0.000000 
0.113959 -0.099131 1.635000 0.000000 0.000000 0.000000 
0.160577 -0.589397 1.888600 0.000000 0.000000 0.000000 
-0.022744 -0.102864 1.642150 0.000000 0.000000 0.000000 
0.072712 -0.103054 1.648970 0.000000 0.000000 0.000000 
0.260648 -0.364725 2.023960 0.000000 0.000000 0.000000 
0.190712 -0.127792 1.393490 0.000000 0.000000 0.000000 
0.165274 -0.131578 1.376380 0.000000 0.000000 0.000000 
0.984463 -0.359450 1.789320 0.000000 0.000000 0.000000 
0.154147 -0.096775 1.536800 0.000000 0.000000 0.000000 
0.161890 -0.063182 1.475890 0.000000 0.000000 0.000000 
0.611908 -0.386889 2.066860 0.000000 0.000000 0.000000 
0.578473 -0.525034 2.045900 0.000000 0.000000 0.000000 
0.616886 -0.522527 2.042700 0.000000 0.000000 0.000000 
0.579751 -0.533694 2.042470 0.000000 0.000000 0.000000 
0.566338 -0.594275 2.017550 0.000000 0.000000 0.000000 
0.238765 -0.172691 1.433650 0.000000 0.000000 0.000000 
0.203069 -0.378851 1.968160 0.000000 0.000000 0.000000 
0.273768 -0.337816 2.017730 0.000000 0.000000 0.000000 
0.279167 -0.297186 2.010890 0.000000 0.000000 0.000000 
0.249505 -0.240758 2.026740 0.000000 0.000000 0.000000 
0.247094 -0.331112 2.004990 0.000000 0.000000 0.000000 
0.894156 -0.191117 2.013220 0.000000 0.000000 0.000000 
0.747182 -0.551937 2.033900 0.000000 0.000000 0.000000 
0.683645 -0.389259 2.078670 0.000000 0.000000 0.000000 
0.988589 -0.449307 1.750120 0.000000 0.000000 0.000000 
0.988313 -0.448511 1.684540 0.000000 0.000000 0.000000 
1.004500 -0.314787 1.778800 0.000000 0.000000 0.000000 
0.986091 -0.448649 1.683530 0.000000 0.000000 0.000000 
0.202101 -0.134624 1.347670 0.000000 0.000000 0.000000 
0.576713 -0.598993 2.029160 0.000000 0.000000 0.000000 
0.160810 -0.124589 1.504240 0.000000 0.000000 0.000000 
0.575459 -0.579591 2.008610 0.000000 0.000000 0.000000 
0.187639 -0.134803 1.334520 0.000000 0.000000 0.000000 
0.175718 -0.072136 1.346550 0.000000 0.000000 0.000000 
0.169249 -0.073620 1.473990 0.000000 0.000000 0.000000 
0.021141 -0.100257 1.660450 0.000000 0.000000 0.000000 
0.746056 -0.244620 2.153770 0.000000 0.000000 0.000000 
0.209861 -0.131470 1.396810 0.000000 0.000000 0.000000 
0.165988 -0.127127 1.511130 0.000000 0.000000 0.000000 
0.247192 -0.160984 1.440190 0.000000 0.000000 0.000000 
0.768245 -0.349510 2.147690 0.000000 0.000000 0.000000 
0.206336 -0.102091 1.636040 0.000000 0.000000 0.000000 
0.228370 -0.050441 1.441170 0.000000 0.000000 0.000000 
0.937486 -0.455184 1.784060 0.000000 0.000000 0.000000 
0.261604 -0.331534 1.984010 0.000000 0.000000 0.000000 
0.245368 -0.340844 1.999660 0.000000 0.000000 0.000000 
0.212700 -0.454136 1.950430 0.000000 0.000000 0.000000 
0.998433 -0.388449 1.506890 0.000000 0.000000 0.000000 
0.984176 -0.333326 1.984010 0.000000 0.000000 0.000000 
0.990556 -0.119543 1.643470 0.000000 0.000000 0.000000 
0.797945 -0.098068 1.642030 0.000000 0.000000 0.000000 
0.116112 -0.616838 2.017620 0.000000 0.000000 0.000000 
0.162513 -0.089286 1.544330 0.000000 0.000000 0.000000 
0.193012 -0.370965 1.966790 0.000000 0.000000 0.000000 
0.237746 -0.343804 1.984470 0.000000 0.000000 0.000000 
0.276107 -0.297889 1.990700 0.000000 0.000000 0.000000 
0.259789 -0.338844 2.019440 0.000000 0.000000 0.000000 
0.263318 -0.475924 2.014590 0.000000 0.000000 0.000000 
0.263300 -0.477183 2.007700 0.000000 0.000000 0.000000 
0.269698 -0.483920 2.029510 0.000000 0.000000 0.000000 
0.247675 -0.352678 2.020570 0.000000 0.000000 0.000000 
0.018728 -0.178058 1.931960 0.000000 0.000000 0.000000 
0.120623 -0.202367 2.008450 0.000000 0.000000 0.000000 
0.528333 -0.223255 2.135020 0.000000 0.000000 0.000000 
0.666230 -0.204042 2.055830 0.000000 0.000000 0.000000 
0.669652 -0.204895 2.066120 0.000000 0.000000 0.000000 
0.972754 -0.313925 1.460200 0.000000 0.000000 0.000000 
0.982552 -0.098771 1.642680 0.000000 0.000000 0.000000 
0.986798 -0.219487 1.551660 0.000000 0.000000 0.000000 
0.726025 -0.032922 1.331410 0.000000 0.000000 0.000000 
0.723783 -0.030807 1.378870 0.000000 0.000000 0.000000 
0.827622 -0.438457 1.444070 0.000000 0.000000 0.000000 
0.989459 -0.394464 1.533480 0.000000 0.000000 0.000000 
0.986481 -0.366153 1.787590 0.000000 0.000000 0.000000 
0.993605 -0.401224 1.564010 0.000000 0.000000 0.000000 
0.986573 -0.449376 1.631990 0.000000 0.000000 0.000000 
0.975660 -0.424012 1.955120 0.000000 0.000000 0.000000 
0.294157 -0.286266 1.276360 0.000000 0.000000 0.000000 
0.673667 -0.441000 1.402000 0.000000 0.000000 0.000000 
0.355328 -0.153649 1.594680 0.000000 0.000000 0.000000 
0.262231 -0.345995 1.399690 0.000000 0.000000 0.000000 
0.400249 -0.435792 1.360710 0.000000 0.000000 0.000000 
0.752850 -0.552216 2.037020 0.000000 0.000000 0.000000 
0.843642 -0.535027 2.094480 0.000000 0.000000 0.000000 
0.871105 -0.247193 2.120810 0.000000 0.000000 0.000000 
0.964291 -0.243122 2.118750 0.000000 0.000000 0.000000 
0.888130 -0.528763 2.057810 0.000000 0.000000 0.000000 
0.687293 -0.241744 2.121740 0.000000 0.000000 0.000000 
0.587647 -0.202543 2.047680 0.000000 0.000000 0.000000 
0.853993 -0.535546 2.097460 0.000000 0.000000 0.000000 
0.982851 -0.471879 1.968490 0.000000 0.000000 0.000000 
0.269879 -0.347036 2.002420 0.000000 0.000000 0.000000 
0.259653 -0.422077 2.032530 0.000000 0.000000 0.000000 
0.123896 -0.488075 1.953450 0.000000 0.000000 0.000000 
0.236408 -0.340946 1.984940 0.000000 0.000000 0.000000 
0.134948 -0.544841 1.931460 0.000000 0.000000 0.000000 
0.258266 -0.363647 2.016000 0.000000 0.000000 0.000000 
0.248674 -0.537386 1.944290 0.000000 0.000000 0.000000 
0.887224 -0.181135 1.435020 0.000000 0.000000 0.000000 
0.976172 -0.112467 1.447430 0.000000 0.000000 0.000000 
0.979039 -0.277388 1.326620 0.000000 0.000000 0.000000 
0.975420 -0.360403 1.390760 0.000000 0.000000 0.000000 
0.927673 -0.135150 1.430230 0.000000 0.000000 0.000000 
0.996645 -0.430759 1.663180 0.000000 0.000000 0.000000 
0.986089 -0.452714 1.661820 0.000000 0.000000 0.000000 
0.987280 -0.452043 1.641120 0.000000 0.000000 0.000000 
0.978615 -0.427558 1.934540 0.000000 0.000000 0.000000 
0.978973 -0.411901 1.958540 0.000000 0.000000 0.000000 
0.981065 -0.423663 1.956840 0.000000 0.000000 0.000000 
0.985964 -0.280452 1.855990 0.000000 0.000000 0.000000 
-0.047766 -0.587829 1.933390 0.000000 0.000000 0.000000 
0.757047 -0.430828 1.248390 0.000000 0.000000 0.000000 
0.758872 -0.431109 1.240160 0.000000 0.000000 0.000000 
0.990804 -0.292315 1.603250 0.000000 0.000000 0.000000 
0.975019 -0.297721 1.399410 0.000000 0.000000 0.000000 
0.992239 -0.099359 1.563530 0.000000 0.000000 0.000000 
0.988781 -0.381199 1.489940 0.000000 0.000000 0.000000 
0.993794 -0.382136 1.548010 0.000000 0.000000 0.000000 
0.113562 -0.170682 1.905000 0.000000 0.000000 0.000000 
-0.018583 -0.147915 1.810090 0.000000 0.000000 0.000000 
0.454960 -0.192331 2.048700 0.000000 0.000000 0.000000 
0.571880 -0.223762 2.123280 0.000000 0.000000 0.000000 
0.761843 -0.547942 2.032610 0.000000 0.000000 0.000000 
0.857179 -0.429616 2.128420 0.000000 0.000000 0.000000 
0.571532 -0.608748 2.040260 0.000000 0.000000 0.000000 
0.857182 -0.240814 2.175140 0.000000 0.000000 0.000000 
0.977369 -0.241513 2.125070 0.000000 0.000000 0.000000 
0.688789 -0.525460 2.039760 0.000000 0.000000 0.000000 
0.454407 -0.189020 2.000580 0.000000 0.000000 0.000000 
0.849115 -0.498769 2.105160 0.000000 0.000000 0.000000 
0.982705 -0.431923 2.011430 0.000000 0.000000 0.000000 
0.688639 -0.238085 2.122620 0.000000 0.000000 0.000000 
0.948316 -0.621148 2.014200 0.000000 0.000000 0.000000 
0.510647 -0.178851 2.008970 0.000000 0.000000 0.000000 
0.486868 -0.192241 2.003430 0.000000 0.000000 0.000000 
0.974677 -0.298907 1.399490 0.000000 0.000000 0.000000 
0.887468 -0.131819 1.406800 0.000000 0.000000 0.000000 
0.976794 -0.430384 1.469430 0.000000 0.000000 0.000000 
0.987235 -0.381160 1.488450 0.000000 0.000000 0.000000 
0.978461 -0.302781 1.314010 0.000000 0.000000 0.000000 
0.978942 -0.187103 1.341010 0.000000 0.000000 0.000000 
0.984274 -0.290172 1.348550 0.000000 0.000000 0.000000 
0.973530 -0.334637 1.397990 0.000000 0.000000 0.000000 
0.983698 -0.180255 1.334410 0.000000 0.000000 0.000000 
0.880543 -0.168663 1.433240 0.000000 0.000000 0.000000 
0.690173 -0.444848 1.438480 0.000000 0.000000 0.000000 
0.886568 -0.416339 1.255310 0.000000 0.000000 0.000000 
0.915629 -0.145132 1.351710 0.000000 0.000000 0.000000 
0.885724 -0.114405 1.401930 0.000000 0.000000 0.000000 
0.875435 -0.150599 1.387570 0.000000 0.000000 0.000000 
0.918249 -0.168805 1.420230 0.000000 0.000000 0.000000 
0.993048 -0.366137 1.582150 0.000000 0.000000 0.000000 
0.120556 -0.102061 1.640150 0.000000 0.000000 0.000000 
0.025447 -0.103906 1.629050 0.000000 0.000000 0.000000 
0.982086 -0.454162 1.986640 0.000000 0.000000 0.000000 
0.223966 -0.299378 1.498450 0.000000 0.000000 0.000000 
0.203536 -0.318712 1.492010 0.000000 0.000000 0.000000 
0.268707 -0.196105 1.565320 0.000000 0.000000 0.000000 
0.296470 -0.181632 1.447760 0.000000 0.000000 0.000000 
0.939649 -0.168347 1.428860 0.000000 0.000000 0.000000 
0.883194 -0.142215 1.382230 0.000000 0.000000 0.000000 
0.978358 -0.190915 1.377540 0.000000 0.000000 0.000000 
0.875807 -0.144707 1.412960 0.000000 0.000000 0.000000 
0.336282 -0.294825 1.276860 0.000000 0.000000 0.000000 
0.273682 -0.269686 1.281010 0.000000 0.000000 0.000000 
0.315718 -0.427303 1.412230 0.000000 0.000000 0.000000 
0.393079 -0.437842 1.359670 0.000000 0.000000 0.000000 
0.767580 -0.053739 1.464380 0.000000 0.000000 0.000000 
0.419805 -0.071685 1.483790 0.000000 0.000000 0.000000 
0.357132 -0.457361 1.425550 0.000000 0.000000 0.000000 
0.257163 -0.308918 1.436220 0.000000 0.000000 0.000000 
0.262522 -0.342307 1.474320 0.000000 0.000000 0.000000 
0.228469 -0.308904 1.496770 0.000000 0.000000 0.000000 
0.225781 -0.320231 1.498160 0.000000 0.000000 0.000000 
0.263318 -0.318832 1.478240 0.000000 0.000000 0.000000 
0.258945 -0.329811 1.470130 0.000000 0.000000 0.000000 
0.179197 -0.147562 1.533390 0.000000 0.000000 0.000000 
0.325148 -0.216799 1.614870 0.000000 0.000000 0.000000 
0.319831 -0.164025 1.563230 0.000000 0.000000 0.000000 
0.229460 -0.363487 1.483440 0.000000 0.000000 0.000000 
0.205000 -0.482840 1.442290 0.000000 0.000000 0.000000 
0.572036 -0.525215 2.041170 0.000000 0.000000 0.000000 
0.991434 -0.379138 1.852460 0.000000 0.000000 0.000000 
0.986300 -0.462053 1.681180 0.000000 0.000000 0.000000 
0.982434 -0.477660 1.966580 0.000000 0.000000 0.000000 
0.984458 -0.452427 1.662340 0.000000 0.000000 0.000000 
0.988462 -0.444659 1.654940 0.000000 0.000000 0.000000 
0.971926 -0.242414 2.120030 0.000000 0.000000 0.000000 
0.980293 -0.431527 2.010300 0.000000 0.000000 0.000000 
0.961118 -0.524218 2.043730 0.000000 0.000000 0.000000 
0.983549 -0.345779 1.978620 0.000000 0.000000 0.000000 
0.976137 -0.463337 1.929600 0.000000 0.000000 0.000000 
0.979040 -0.349298 1.989490 0.000000 0.000000 0.000000 
0.980110 -0.477424 1.943030 0.000000 0.000000 0.000000 
0.920881 -0.147955 1.450270 0.000000 0.000000 0.000000 
0.921345 -0.029786 1.347830 0.000000 0.000000 0.000000 
0.973211 -0.292495 1.361470 0.000000 0.000000 0.000000 
0.983109 -0.092501 1.545570 0.000000 0.000000 0.000000 
0.988612 -0.381692 1.489810 0.000000 0.000000 0.000000 
0.976847 -0.254006 1.306960 0.000000 0.000000 0.000000 
0.890003 -0.189432 1.436450 0.000000 0.000000 0.000000 
0.975179 -0.102132 1.449810 0.000000 0.000000 0.000000 
-0.005668 -0.609442 1.876800 0.000000 0.000000 0.000000 
0.135330 -0.584374 1.908610 0.000000 0.000000 0.000000 
0.161450 -0.090894 1.537710 0.000000 0.000000 0.000000 
0.270501 -0.375609 2.020720 0.000000 0.000000 0.000000 
0.274742 -0.289746 2.020070 0.000000 0.000000 0.000000 
0.988539 -0.380959 1.485520 0.000000 0.000000 0.000000 
0.971936 -0.450146 1.397220 0.000000 0.000000 0.000000 
0.930497 -0.152468 1.450620 0.000000 0.000000 0.000000 
0.836606 -0.439679 1.434870 0.000000 0.000000 0.000000 
0.975807 -0.081092 1.560800 0.000000 0.000000 0.000000 
0.965394 -0.107493 1.454540 0.000000 0.000000 0.000000 
0.927112 -0.297359 1.722660 0.000000 0.000000 0.000000 
0.982369 -0.301221 1.750770 0.000000 0.000000 0.000000 
0.935653 -0.297332 1.727940 0.000000 0.000000 0.000000 
0.215255 -0.123388 1.413910 0.000000 0.000000 0.000000 
0.153104 -0.029848 1.339980 0.000000 0.000000 0.000000 
0.165368 -0.125598 1.510680 0.000000 0.000000 0.000000 
0.156307 -0.096685 1.539860 0.000000 0.000000 0.000000 
0.161747 -0.083192 1.361590 0.000000 0.000000 0.000000 
0.187234 -0.057164 1.354690 0.000000 0.000000 0.000000 
0.574153 -0.326565 2.092560 0.000000 0.000000 0.000000 
0.165328 -0.116899 1.372450 0.000000 0.000000 0.000000 
0.375752 -0.240736 2.111900 0.000000 0.000000 0.000000 
0.276261 -0.347479 2.015270 0.000000 0.000000 0.000000 
0.293433 -0.298556 2.017070 0.000000 0.000000 0.000000 
0.582045 -0.244934 2.117860 0.000000 0.000000 0.000000 
0.982082 -0.379671 1.502670 0.000000 0.000000 0.000000 
0.980602 -0.314087 1.447140 0.000000 0.000000 0.000000 
0.977082 -0.227311 1.315320 0.000000 0.000000 0.000000 
0.984729 -0.433775 1.637830 0.000000 0.000000 0.000000 
0.963633 -0.084647 1.499890 0.000000 0.000000 0.000000 
0.887091 -0.176771 1.408040 0.000000 0.000000 0.000000 
0.843227 -0.084247 1.560530 0.000000 0.000000 0.000000 
0.980114 -0.280420 1.312150 0.000000 0.000000 0.000000 
0.978165 -0.479809 1.954730 0.000000 0.000000 0.000000 
0.812991 -0.125831 1.749290 0.000000 0.000000 0.000000 
0.902758 -0.623714 2.023510 0.000000 0.000000 0.000000 
0.750255 -0.415479 1.247980 0.000000 0.000000 0.000000 
0.938255 -0.120616 1.467610 0.000000 0.000000 0.000000 
0.883596 -0.083485 1.415840 0.000000 0.000000 0.000000 
0.772343 -0.080567 1.581310 0.000000 0.000000 0.000000 
0.943270 -0.126161 1.416490 0.000000 0.000000 0.000000 
0.928515 -0.087415 1.435280 0.000000 0.000000 0.000000 
0.997383 -0.185109 1.350780 0.000000 0.000000 0.000000 
0.716568 -0.100910 1.645210 0.000000 0.000000 0.000000 
0.982122 -0.426370 1.934830 0.000000 0.000000 0.000000 
0.981148 -0.326090 1.964950 0.000000 0.000000 0.000000 
0.986248 -0.398060 1.836330 0.000000 0.000000 0.000000 
0.956632 -0.515668 2.006160 0.000000 0.000000 0.000000 
0.987951 -0.403349 1.573760 0.000000 0.000000 0.000000 
0.025677 -0.087342 1.575760 0.000000 0.000000 0.000000 
0.991011 -0.345125 1.884430 0.000000 0.000000 0.000000 
0.201508 -0.107159 1.426590 0.000000 0.000000 0.000000 
0.114527 -0.093073 1.356980 0.000000 0.000000 0.000000 
0.230748 -0.129572 1.437200 0.000000 0.000000 0.000000 
0.256512 -0.187785 1.445490 0.000000 0.000000 0.000000 
0.169654 -0.158266 1.451660 0.000000 0.000000 0.000000 
0.171804 -0.074482 1.476710 0.000000 0.000000 0.000000 
0.237796 -0.078851 1.466340 0.000000 0.000000 0.000000 
0.171090 -0.076145 1.476220 0.000000 0.000000 0.000000 
0.250391 -0.179134 1.441250 0.000000 0.000000 0.000000 
0.565124 -0.500575 1.522870 0.000000 0.000000 0.000000 
0.187005 -0.125673 1.407490 0.000000 0.000000 0.000000 
0.170014 -0.120922 1.330130 0.000000 0.000000 0.000000 
0.565445 -0.514607 1.564360 0.000000 0.000000 0.000000 
0.932043 -0.296603 1.724130 0.000000 0.000000 0.000000 
0.229231 -0.143766 1.385970 0.000000 0.000000 0.000000 
0.293720 -0.116397 1.416820 0.000000 0.000000 0.000000 
0.266443 -0.159282 1.454100 0.000000 0.000000 0.000000 
0.155489 -0.111929 1.324900 0.000000 0.000000 0.000000 
0.164963 -0.112252 1.361800 0.000000 0.000000 0.000000 
0.166742 -0.059974 1.492540 0.000000 0.000000 0.000000 
0.157981 -0.084466 1.382950 0.000000 0.000000 0.000000 
0.155519 -0.082795 1.251860 0.000000 0.000000 0.000000 
0.167275 -0.123691 1.383720 0.000000 0.000000 0.000000 
0.438912 -0.202421 2.047970 0.000000 0.000000 0.000000 
0.327313 -0.278695 2.038630 0.000000 0.000000 0.000000 
0.571886 -0.418267 2.081750 0.000000 0.000000 0.000000 
0.222980 -0.081248 1.465330 0.000000 0.000000 0.000000 
0.120971 -0.126763 1.353140 0.000000 0.000000 0.000000 
0.955185 -0.050936 1.412100 0.000000 0.000000 0.000000 
0.938586 -0.099519 1.419100 0.000000 0.000000 0.000000 
0.942140 -0.168202 1.404040 0.000000 0.000000 0.000000 
0.882299 -0.082618 1.417180 0.000000 0.000000 0.000000 
0.952635 -0.045681 1.422460 0.000000 0.000000 0.000000 
0.880943 -0.130894 1.419540 0.000000 0.000000 0.000000 
0.961376 -0.038357 1.407410 0.000000 0.000000 0.000000 
0.975715 -0.032909 1.375370 0.000000 0.000000 0.000000 
0.943415 -0.074479 1.405210 0.000000 0.000000 0.000000 
0.870963 -0.149649 1.390890 0.000000 0.000000 0.000000 
0.961519 -0.151799 1.437870 0.000000 0.000000 0.000000 
0.745740 -0.432285 1.256640 0.000000 0.000000 0.000000 
0.620862 -0.522370 2.041620 0.000000 0.000000 0.000000 
0.661371 -0.431976 2.063380 0.000000 0.000000 0.000000 
0.579258 -0.526491 2.046670 0.000000 0.000000 0.000000 
0.365315 -0.249985 2.107170 0.000000 0.000000 0.000000 
0.317684 -0.288540 2.022410 0.000000 0.000000 0.000000 
0.581684 -0.239869 2.120910 0.000000 0.000000 0.000000 
0.136492 -0.584400 1.912670 0.000000 0.000000 0.000000 
0.180272 -0.042822 1.417120 0.000000 0.000000 0.000000 
0.996287 -0.295769 1.430930 0.000000 0.000000 0.000000 
0.719739 -0.052796 1.458270 0.000000 0.000000 0.000000 
0.881063 -0.054104 1.442850 0.000000 0.000000 0.000000 
0.957743 -0.173177 1.344070 0.000000 0.000000 0.000000 
0.989290 -0.382822 1.494080 0.000000 0.000000 0.000000 
0.973628 -0.159667 1.539690 0.000000 0.000000 0.000000 
0.984543 -0.194575 1.533180 0.000000 0.000000 0.000000 
0.988665 -0.244367 1.538840 0.000000 0.000000 0.000000 
0.990573 -0.273165 1.858660 0.000000 0.000000 0.000000 
0.889500 -0.132776 1.411960 0.000000 0.000000 0.000000 
0.925083 -0.158621 1.360310 0.000000 0.000000 0.000000 
0.976501 -0.157315 1.357030 0.000000 0.000000 0.000000 
0.990234 -0.090886 1.545010 0.000000 0.000000 0.000000 
0.892405 -0.442502 1.421800 0.000000 0.000000 0.000000 
0.977715 -0.336749 1.291790 0.000000 0.000000 0.000000 
0.864681 -0.115143 1.419400 0.000000 0.000000 0.000000 
0.985869 -0.486699 1.868190 0.000000 0.000000 0.000000 
0.914186 -0.097660 1.646500 0.000000 0.000000 0.000000 
0.975128 -0.532076 2.043810 0.000000 0.000000 0.000000 
0.617179 -0.173253 1.928630 0.000000 0.000000 0.000000 
0.980128 -0.397037 1.963900 0.000000 0.000000 0.000000 
0.989488 -0.449627 1.653120 0.000000 0.000000 0.000000 
0.889579 -0.192485 2.011640 0.000000 0.000000 0.000000 
0.669166 -0.176477 1.945900 0.000000 0.000000 0.000000 
0.988680 -0.377654 1.858790 0.000000 0.000000 0.000000 
0.723549 -0.245377 2.138510 0.000000 0.000000 0.000000 
0.973286 -0.499816 1.950270 0.000000 0.000000 0.000000 
0.992361 -0.359634 1.787880 0.000000 0.000000 0.000000 
0.980090 -0.431998 2.011830 0.000000 0.000000 0.000000 
0.974445 -0.088479 1.467800 0.000000 0.000000 0.000000 
0.976840 -0.281155 1.317360 0.000000 0.000000 0.000000 
0.976848 -0.263448 1.437610 0.000000 0.000000 0.000000 
0.931270 -0.171407 1.435290 0.000000 0.000000 0.000000 
0.970294 -0.105938 1.453330 0.000000 0.000000 0.000000 
0.976872 -0.339374 1.284190 0.000000 0.000000 0.000000 
